11.68106 0.50841 2.28726 0.65241 0.12953 0.74671
11.79005 -0.01883 2.15081 0.63614 -0.21805 0.74012
11.26712 1.82519 1.45385 0.35457 0.67395 0.64813
11.30047 1.78356 1.47535 0.33369 0.67318 0.65991
11.64847 0.51804 2.31190 0.62495 0.16058 0.76397
11.62497 0.49083 2.33489 0.59514 0.15262 0.78899
11.58795 0.51138 2.35456 0.54205 0.19366 0.81773
11.59834 0.46418 2.35691 0.55137 0.09637 0.82868
11.67800 0.04985 2.26561 0.63209 -0.20917 0.74613
11.73888 -0.02064 2.19428 0.63209 -0.20917 0.74613
11.71502 0.07505 2.24132 0.63209 -0.20917 0.74613
11.83916 -0.17495 2.04135 0.57642 -0.39548 0.71507
12.49938 -2.17589 0.87669 0.82208 -0.38382 0.42055
12.47466 -2.17123 0.92200 0.78654 -0.40038 0.47017
12.45741 -2.13545 0.97500 0.75549 -0.40207 0.51727
11.04218 3.46089 -0.65493 0.46612 0.82216 0.32678
10.99408 3.51979 -0.73180 0.49648 0.80719 0.31930
11.55923 0.57175 2.35475 0.51170 0.31306 0.80010
12.67566 -2.61575 0.15766 0.85794 -0.39405 0.32963
13.56172 -4.75539 -3.87170 0.37344 -0.92262 0.09655
13.47093 -4.77701 -3.74619 0.37475 -0.91775 0.13150
11.69832 -0.09517 2.19695 0.57786 -0.36595 0.72949
11.75521 -0.14394 2.12741 0.57786 -0.36595 0.72949
11.76083 -0.10327 2.14336 0.57786 -0.36595 0.72949
11.08369 2.75962 0.53639 0.59737 0.61285 0.51727
10.99896 3.42146 -0.47838 0.52687 0.78901 0.31601
11.70325 -0.04266 2.21571 0.59235 -0.31992 0.73944
11.05078 3.40006 -0.51145 0.51329 0.79318 0.32772
11.81653 -0.21677 2.03271 0.53729 -0.43947 0.71985
11.76113 -0.17973 2.10100 0.57890 -0.41997 0.69893
11.83772 -0.25187 1.99243 0.53106 -0.48049 0.69793
13.30938 -4.35469 -1.77553 0.26087 -0.63303 0.72884
11.32365 1.29107 1.92723 0.28762 0.63902 0.71340
11.32216 1.35530 1.87029 0.28762 0.63902 0.71340
11.40431 1.42000 1.77647 0.27420 0.66261 0.69697
13.06286 -3.72949 -1.76531 -0.72977 0.27869 0.62431
13.09209 -3.77339 -1.70940 -0.65099 0.24461 0.71859
12.58482 -2.51933 0.44435 0.85946 -0.30608 0.40945
11.01827 3.07202 0.20956 0.56785 0.67889 0.46545
12.84309 -2.97616 -1.43427 0.84159 -0.53548 0.07054
11.96261 -0.57879 1.67826 0.18383 -0.56863 0.80179
11.91076 -0.56074 1.70468 0.20925 -0.56595 0.79744
11.91375 -0.60606 1.66889 0.16696 -0.57449 0.80130
11.85489 -0.58814 1.70062 0.23484 -0.59281 0.77035
11.86699 -0.49157 1.77388 0.28525 -0.59450 0.75180
11.86216 -0.54328 1.73482 0.28525 -0.59450 0.75180
12.01726 -0.95954 1.43627 -0.02374 -0.43964 0.89786
12.78932 -2.90937 -0.85237 0.80840 -0.56939 0.14929
11.14557 2.47671 0.79823 0.57597 0.62671 0.52487
10.72243 5.00430 -2.77335 -0.36368 -0.22595 0.90371
10.69994 4.93076 -2.79843 -0.33354 -0.21127 0.91876
10.67565 5.01615 -2.78761 -0.33354 -0.21127 0.91876
10.98481 3.25906 -0.06671 0.57245 0.73593 0.36154
10.99875 3.20116 0.02308 0.56496 0.73060 0.38347
10.93271 3.27290 -0.01818 0.54608 0.73446 0.40295
10.91885 3.24647 0.04877 0.54608 0.73446 0.40295
13.39974 -4.80873 -3.78079 0.36265 -0.92624 0.10276
12.78051 -2.85517 -0.60563 0.82864 -0.53574 0.16228
12.07199 -1.01745 1.41318 -0.01101 -0.34257 0.93943
12.81058 -3.01035 -1.33987 0.82912 -0.55251 0.08543
12.80721 -3.02975 -1.44768 0.81676 -0.57177 0.07739
12.78016 -3.06225 -1.40229 0.81676 -0.57177 0.07739
12.82293 -3.01293 -1.54502 0.82621 -0.56219 0.03624
12.78120 -3.07168 -1.54957 0.80839 -0.58758 0.03539
12.75471 -3.10528 -1.50239 0.80839 -0.58758 0.03539
10.99054 2.86086 0.51884 0.58376 0.62663 0.51630
11.63568 0.24648 2.33344 0.61696 -0.09700 0.78099
12.56015 -2.45142 0.54428 0.86816 -0.28055 0.40938
12.68050 -2.79612 -0.12400 0.82150 -0.49470 0.28358
12.69390 -2.83169 -0.23103 0.81053 -0.51790 0.27353
13.44731 -4.74790 -3.51258 0.39096 -0.90414 0.17229
10.95876 2.65514 0.80152 0.59473 0.61193 0.52138
10.94532 2.76475 0.68573 0.58265 0.62597 0.51835
13.23530 -4.31543 -1.72897 0.09470 -0.49378 0.86442
13.15501 -4.32324 -1.72974 0.03720 -0.46964 0.88207
12.99777 -3.17815 -2.52469 -0.85394 -0.02144 0.51993
12.98990 -3.13053 -2.53566 -0.85394 -0.02144 0.51993
12.97634 -3.22950 -2.56339 -0.87358 -0.00214 0.48668
12.96686 -3.19756 -2.58026 -0.87358 -0.00214 0.48668
12.94622 -3.16872 -2.59865 -0.76696 -0.15135 0.62359
13.34327 -4.56744 -2.39380 0.38418 -0.91621 0.11387
13.25262 -4.59453 -2.29369 0.39110 -0.90919 0.14291
11.47086 0.84402 2.24022 0.36328 0.58401 0.72592
11.46838 0.92232 2.17738 0.31240 0.60061 0.73598
11.41789 0.94494 2.18035 0.31240 0.60061 0.73598
12.79353 -2.95382 -1.04227 0.80871 -0.56850 0.15100
11.38008 1.11561 2.05229 0.31642 0.59537 0.73852
11.43930 1.08317 2.05429 0.32362 0.59500 0.73569
12.18341 -1.33018 1.35886 -0.03836 0.04438 0.99828
12.15491 -1.37194 1.35570 -0.09328 0.03155 0.99514
11.98507 -0.88294 1.47346 -0.01935 -0.49250 0.87010
12.55048 -2.55363 0.49021 0.85764 -0.31056 0.40988
13.17966 -4.15848 -1.66121 -0.06888 -0.29642 0.95257
13.19746 -4.24339 -1.69121 0.00790 -0.39288 0.91956
13.14478 -4.23451 -1.69012 -0.04122 -0.35922 0.93234
13.46568 -4.71252 -3.39548 0.42490 -0.87393 0.23601
13.38782 -4.72937 -3.31771 0.42490 -0.87393 0.23601
11.18878 2.32966 0.93261 0.52855 0.66716 0.52491
13.40171 -4.58276 -2.83328 0.41561 -0.89465 0.16395
13.41339 -4.58987 -2.89859 0.42027 -0.88611 0.19541
13.42237 -4.59882 -2.95514 0.42429 -0.87721 0.22467
12.46764 -2.29597 0.84306 0.82803 -0.34300 0.44352
12.45175 -2.26008 0.89274 0.80182 -0.36302 0.47466
11.66538 0.13180 2.29361 0.61802 -0.16726 0.76816
12.41609 -2.15430 1.01143 0.69802 -0.44259 0.56292
12.43757 -2.19508 0.95718 0.75268 -0.40552 0.51868
12.39177 -2.22043 0.99485 0.70398 -0.40513 0.58334
12.75047 -2.85571 -0.47377 0.82410 -0.53124 0.19658
11.28717 1.22727 1.99666 0.31062 0.61301 0.72646
11.20887 1.28641 1.98023 0.31062 0.61301 0.72646
11.25039 1.34850 1.90796 0.30484 0.62880 0.71532
12.95008 -3.26229 -2.60851 -0.86635 0.00672 0.49939
12.91514 -3.31044 -2.66077 -0.81898 -0.02780 0.57314
12.92835 -3.23917 -2.63844 -0.81898 -0.02780 0.57314
12.31251 -1.73522 1.32680 0.18375 -0.32109 0.92905
11.14416 2.29769 1.01811 0.54077 0.65538 0.52731
11.18550 2.25731 1.02636 0.52008 0.66723 0.53321
12.81548 -2.97837 -1.23106 0.81861 -0.55252 0.15681
12.77336 -3.03302 -1.21916 0.79821 -0.57848 0.16798
12.40984 -1.89117 1.20945 0.57805 -0.46230 0.67241
12.42494 -1.92691 1.17220 0.61960 -0.47121 0.62774
12.38006 -1.94201 1.19573 0.52832 -0.49543 0.68951
13.11482 -3.98084 -1.64646 -0.27633 -0.07897 0.95781
12.39401 -1.97840 1.15990 0.57197 -0.47979 0.66532
12.48589 -2.38466 0.74730 0.85981 -0.31292 0.40350
12.45759 -2.39958 0.79176 0.84542 -0.31213 0.43340
12.52203 -2.39357 0.66674 0.86666 -0.28930 0.40646
12.50675 -2.51896 0.60829 0.86357 -0.29562 0.40848
12.45206 -2.57991 0.67643 0.85679 -0.29992 0.41948
13.16375 -4.03608 -1.63709 -0.17844 -0.17725 0.96785
13.15576 -4.08479 -1.64627 -0.15172 -0.19496 0.96900
11.21604 2.08136 1.21157 0.43669 0.68753 0.58018
11.23690 1.98993 1.30060 0.44859 0.67392 0.58702
11.19010 2.03057 1.28970 0.44859 0.67392 0.58702
11.53902 0.66351 2.32786 0.51207 0.37775 0.77142
11.50402 0.68023 2.34008 0.47447 0.43376 0.76598
12.54514 -2.62685 0.43987 0.85266 -0.33681 0.39941
12.50327 -2.62596 0.53002 0.85266 -0.33681 0.39941
11.09536 2.54260 0.77678 0.58767 0.61788 0.52237
12.20657 -1.53839 1.36013 -0.07889 -0.07333 0.99418
12.24141 -1.60175 1.35790 -0.03049 -0.10944 0.99353
12.20736 -1.62723 1.35009 -0.14137 -0.11251 0.98354
12.15452 -1.45481 1.35507 -0.18632 -0.05659 0.98086
12.15562 -1.54358 1.35016 -0.18632 -0.05659 0.98086
13.07590 -3.61374 -1.81958 -0.79617 0.36304 0.48406
13.37424 -4.58192 -2.73948 0.40131 -0.91054 0.09931
13.29770 -4.43058 -1.86471 0.33878 -0.79672 0.50046
13.26293 -4.42880 -1.84261 0.30510 -0.78236 0.54297
10.72789 4.65140 -2.84225 -0.26908 -0.20208 0.94168
10.76217 4.70374 -2.82123 -0.26908 -0.20208 0.94168
10.72203 4.72913 -2.82689 -0.26331 -0.20616 0.94243
11.50630 0.56079 2.38615 0.45116 0.26373 0.85259
11.49890 0.60350 2.37685 0.45116 0.26373 0.85259
11.48034 0.64748 2.36915 0.45422 0.33620 0.82502
12.59693 -2.60424 0.35162 0.85164 -0.33105 0.40635
12.52974 -2.67605 0.42507 0.83683 -0.38041 0.39370
11.23843 1.90339 1.39260 0.43728 0.65871 0.61227
11.18070 1.96738 1.36498 0.43728 0.65871 0.61227
12.68140 -2.70542 0.01957 0.84389 -0.43758 0.31045
13.06781 -3.66223 -1.79889 -0.79856 0.34408 0.49387
11.17891 2.21427 1.08524 0.48514 0.69092 0.53597
11.20014 2.14997 1.14404 0.46877 0.68370 0.55929
11.15494 2.18021 1.14818 0.49825 0.66893 0.55162
12.63412 -2.60393 0.26971 0.86218 -0.34247 0.37332
12.57624 -2.66143 0.33926 0.84040 -0.38636 0.38007
12.62110 -2.65261 0.24740 0.83240 -0.41559 0.36661
12.57803 -2.70632 0.28429 0.83240 -0.41559 0.36661
13.27979 -4.53085 -2.06389 0.37182 -0.88191 0.28979
13.27621 -4.52167 -2.03344 0.36900 -0.87695 0.30791
12.28528 -1.86132 1.28328 0.15826 -0.38076 0.91103
12.28467 -1.79117 1.31090 0.06160 -0.36517 0.92890
12.25452 -1.86189 1.28510 0.06160 -0.36517 0.92890
12.24315 -1.73776 1.32866 0.00900 -0.30921 0.95095
12.25344 -1.80528 1.30661 0.00900 -0.30921 0.95095
11.54800 0.53559 2.37162 0.49834 0.23448 0.83467
12.95659 -3.02174 -2.47955 -0.00405 -0.67370 0.73900
13.02029 -2.96032 -2.42321 -0.00405 -0.67370 0.73900
12.90822 -3.03204 -2.45598 0.40783 -0.76086 0.50475
12.97960 -2.96128 -2.40699 0.40783 -0.76086 0.50475
12.64976 -2.67597 0.14727 0.84757 -0.42049 0.32375
12.61320 -2.74438 0.14545 0.83461 -0.45423 0.31161
11.58248 0.38827 2.37316 0.53477 0.03158 0.84441
11.58232 0.32229 2.37366 0.54202 -0.01501 0.84023
11.55324 0.36094 2.38958 0.48580 0.00539 0.87405
11.47146 0.70612 2.34126 0.41278 0.48359 0.77185
11.46702 0.77412 2.29680 0.30605 0.53496 0.78750
11.55789 0.48711 2.37670 0.50301 0.15297 0.85064
11.56952 0.43810 2.37707 0.51715 0.08699 0.85146
11.52556 0.46392 2.39633 0.45425 0.11451 0.88348
11.53865 0.41300 2.39497 0.46219 0.03781 0.88597
12.36571 -1.91000 1.22641 0.39322 -0.49390 0.77553
11.42471 0.83430 2.26608 0.29587 0.59109 0.75038
12.96507 -3.28481 -2.57246 -0.89162 0.10963 0.43931
12.95066 -3.34344 -2.57860 -0.90853 0.18402 0.37511
12.93685 -3.32863 -2.61933 -0.90853 0.18402 0.37511
12.97216 -3.31771 -2.52835 -0.93654 0.21627 0.27589
13.05468 -3.33303 -2.21946 -0.86061 0.40420 0.30980
13.01697 -3.45885 -2.16068 -0.86426 0.41585 0.28308
13.30060 -4.61325 -2.72276 0.41288 -0.90161 0.12896
13.11947 -3.84808 -1.66084 -0.54494 0.21956 0.80922
13.12096 -3.88960 -1.65131 -0.49409 0.17755 0.85109
13.03892 -3.80663 -1.75003 -0.69606 0.34122 0.63172
13.07781 -3.83208 -1.69810 -0.62236 0.29128 0.72652
13.02128 -3.87982 -1.72874 -0.65813 0.35215 0.66547
13.07645 -3.88178 -1.68122 -0.52843 0.17180 0.83141
13.00408 -2.90067 -2.33135 0.45323 -0.76147 0.46342
12.93018 -2.97844 -2.37251 0.52029 -0.77428 0.36027
12.95437 -2.92426 -2.28654 0.61173 -0.73547 0.29132
12.63100 -2.79935 0.01028 0.82004 -0.49310 0.29048
13.38917 -4.62937 -3.00420 0.43971 -0.85905 0.26208
12.12424 -1.22786 1.35830 -0.05912 -0.13934 0.98848
12.14778 -1.27050 1.35661 -0.06957 -0.06568 0.99541
12.09300 -1.27330 1.34958 -0.12116 -0.10610 0.98695
12.11739 -1.31364 1.35062 -0.12190 0.00800 0.99251
11.96087 -0.79016 1.52770 -0.01224 -0.51445 0.85743
11.96632 -0.83730 1.49874 -0.02076 -0.49090 0.87097
12.77426 -2.49258 0.04381 0.86664 -0.34065 0.36454
12.42433 -2.25673 0.93422 0.70379 -0.37564 0.60297
12.39661 -2.10987 1.06207 0.56400 -0.43430 0.70234
12.34869 -2.11425 1.09784 0.56400 -0.43430 0.70234
12.36979 -2.16295 1.05079 0.56400 -0.43430 0.70234
13.05139 -3.62887 -1.85518 -0.82947 0.37940 0.40992
13.01849 -3.64389 -1.91163 -0.83584 0.39401 0.38226
10.88037 3.72289 -1.04213 0.50855 0.80297 0.31083
12.25968 -1.64178 1.35320 0.02218 -0.16316 0.98635
12.27080 -1.68234 1.34481 0.06102 -0.22847 0.97164
12.23951 -1.67591 1.34517 -0.03191 -0.21099 0.97697
12.27660 -1.72604 1.33257 0.05274 -0.26272 0.96343
11.18325 1.88495 1.44816 0.41930 0.65123 0.63252
13.16301 -3.90100 -1.62996 -0.36819 -0.02975 0.92928
13.10976 -3.94209 -1.65001 -0.42534 0.11293 0.89796
11.30814 1.42919 1.80789 0.28864 0.66506 0.68875
10.93728 3.44238 -0.42311 0.53973 0.78449 0.30540
10.76270 4.80354 -2.80163 -0.30871 -0.17867 0.93422
10.71848 4.82471 -2.81126 -0.28451 -0.16499 0.94437
11.58118 0.25255 2.36980 0.54688 -0.08047 0.83333
11.62889 0.16574 2.32714 0.60435 -0.11241 0.78875
11.59374 0.13752 2.34595 0.54953 -0.13484 0.82452
11.59023 0.19568 2.35780 0.54953 -0.13484 0.82452
10.93270 3.61928 -0.88127 0.50400 0.78857 0.35234
10.85907 3.70503 -0.96740 0.54207 0.77983 0.31310
10.88719 3.62880 -0.82621 0.54207 0.77983 0.31310
11.85781 -0.45065 1.81169 0.31232 -0.60290 0.73415
12.74676 -2.90159 -0.59789 0.80946 -0.55820 0.18216
12.71123 -2.91784 -0.49411 0.79442 -0.57972 0.18119
12.69009 -2.95966 -0.53522 0.79442 -0.57972 0.18119
12.74031 -2.95124 -0.74923 0.80520 -0.57275 0.15364
12.70234 -2.96405 -0.60441 0.79317 -0.58260 0.17738
10.94399 3.56414 -0.76098 0.52144 0.79427 0.31182
10.86542 3.53510 -0.53754 0.55041 0.78102 0.29504
12.37839 -2.06669 1.10791 0.57544 -0.50089 0.64651
12.36216 -2.02532 1.14876 0.52684 -0.48349 0.69906
12.32963 -2.06853 1.13948 0.49367 -0.46407 0.73548
12.31478 -2.02547 1.17542 0.42956 -0.48670 0.76066
12.34835 -1.98640 1.18436 0.47243 -0.51983 0.71175
10.83599 4.41686 -2.88173 -0.22151 -0.20458 0.95346
10.80365 4.37360 -2.89595 -0.19018 -0.14348 0.97121
10.73007 4.35961 -2.90685 -0.09557 -0.08605 0.99170
12.60804 -2.86817 -0.04554 0.81375 -0.50491 0.28788
12.60057 -2.90619 -0.09736 0.80644 -0.52619 0.26977
11.81976 -0.37419 1.90382 0.40856 -0.58567 0.70005
11.85865 -0.32152 1.92518 0.40856 -0.58567 0.70005
11.79343 -0.34705 1.94579 0.44280 -0.57756 0.68582
11.80725 -0.29256 1.98276 0.44280 -0.57756 0.68582
13.49084 -4.78792 -3.94084 0.36257 -0.92964 0.06562
11.92738 -0.82145 1.50968 0.02744 -0.52099 0.85312
13.26498 -4.49138 -1.95271 0.33548 -0.84647 0.41345
11.20957 1.83419 1.48116 0.42996 0.63808 0.63874
10.67355 4.67537 -2.84909 -0.21063 -0.20484 0.95586
10.70767 4.61198 -2.85660 -0.22125 -0.23134 0.94738
10.81246 4.58090 -2.83875 -0.29327 -0.25391 0.92170
13.22563 -4.59805 -2.24696 0.38829 -0.90826 0.15588
13.24467 -4.57271 -2.16306 0.37777 -0.90662 0.18797
10.60644 4.94181 -2.82252 -0.24912 -0.15544 0.95592
10.66306 4.89614 -2.81518 -0.24912 -0.15544 0.95592
10.61828 4.98546 -2.81233 -0.24912 -0.15544 0.95592
10.63250 4.81166 -2.83460 -0.23453 -0.13630 0.96250
10.99057 3.03760 0.29183 0.56217 0.67837 0.47305
10.93076 3.10143 0.26782 0.54710 0.69056 0.47307
10.68171 4.76194 -2.83085 -0.21802 -0.14295 0.96542
11.80218 -0.46546 1.82854 0.37398 -0.62958 0.68100
13.23166 -4.39996 -1.79301 0.23933 -0.66618 0.70634
13.24491 -4.41376 -1.81380 0.25142 -0.72489 0.64134
10.87751 3.37761 -0.15849 0.54561 0.77155 0.32714
10.89894 3.33665 -0.09868 0.54989 0.75542 0.35630
11.73027 -0.20921 2.10404 0.53161 -0.48506 0.69434
10.94017 3.17101 0.14980 0.54737 0.70449 0.45175
10.87894 3.17002 0.22163 0.53002 0.71131 0.46164
10.60413 4.77499 -2.84552 -0.20539 -0.13011 0.96999
13.35006 -4.56977 -2.45963 0.37480 -0.92547 0.05511
12.76092 -2.95877 -0.89457 0.79318 -0.58883 0.15541
10.98373 2.93295 0.43669 0.57091 0.64000 0.51426
13.25398 -4.51699 -2.00026 0.34245 -0.87105 0.35214
11.25546 1.66763 1.60762 0.33848 0.64951 0.68085
11.26950 1.62257 1.64173 0.35240 0.63215 0.69007
10.86923 3.41344 -0.23225 0.53135 0.78393 0.32113
10.84415 3.30656 0.03274 0.51889 0.75301 0.40464
13.44564 -4.79773 -3.84713 0.35873 -0.92866 0.09436
11.73613 -0.25273 2.06620 0.51330 -0.49490 0.70114
11.68075 -0.31437 2.05485 0.48155 -0.55717 0.67651
11.71993 -0.34467 1.99904 0.47405 -0.59028 0.65334
12.71833 -3.06585 -1.08981 0.78235 -0.60140 0.16204
12.76613 -2.99381 -1.05318 0.78235 -0.60140 0.16204
12.72814 -3.01770 -0.95843 0.78235 -0.60140 0.16204
11.94737 -0.76467 1.54509 0.00762 -0.57911 0.81521
13.03059 -3.69565 -1.83839 -0.80869 0.30929 0.50036
12.69257 -3.01967 -0.77161 0.79012 -0.59577 0.14413
11.23089 1.78107 1.51842 0.38409 0.64771 0.65798
11.24826 1.72841 1.55667 0.36077 0.64779 0.67097
11.19553 1.73857 1.57961 0.41027 0.62066 0.66818
12.04220 -1.07135 1.39177 -0.02897 -0.35511 0.93437
11.90922 -1.08714 1.37933 -0.04656 -0.34641 0.93693
12.07320 -1.12846 1.37528 -0.03863 -0.28656 0.95728
12.09961 -1.18108 1.36414 -0.04819 -0.21406 0.97563
12.03987 -1.18262 1.35850 -0.08485 -0.24690 0.96532
11.97727 -1.13355 1.36682 -0.07149 -0.25482 0.96434
11.12906 1.81920 1.55330 0.44773 0.63329 0.63126
11.15041 1.87401 1.48317 0.44773 0.63329 0.63126
12.77544 -3.04657 -1.28152 0.80915 -0.57261 0.13190
10.62676 5.02839 -2.80068 -0.29852 -0.19456 0.93436
10.57528 5.04112 -2.81233 -0.23045 -0.17812 0.95664
10.51371 5.02065 -2.83097 -0.23045 -0.17812 0.95664
10.88344 3.06706 0.36846 0.53797 0.68753 0.48775
10.90031 3.02326 0.41014 0.54979 0.66876 0.50049
10.80973 3.14711 0.33092 0.51681 0.71129 0.47642
10.83342 3.10495 0.36793 0.51713 0.71005 0.47792
12.98531 -3.72436 -1.89741 -0.80929 0.40838 0.42223
13.00671 -3.77087 -1.81753 -0.76454 0.38587 0.51632
12.95017 -3.80996 -1.87533 -0.77282 0.43613 0.46101
12.98008 -3.84806 -1.79600 -0.77548 0.40309 0.48596
11.02546 2.38453 1.04173 0.57407 0.62388 0.53029
11.10063 2.34789 1.00345 0.57407 0.62388 0.53029
11.04302 2.45209 0.94324 0.57407 0.62388 0.53029
11.52238 0.33527 2.40407 0.44664 -0.03234 0.89413
11.53817 0.28099 2.39503 0.47722 -0.05641 0.87697
11.47690 0.29979 2.42157 0.38651 -0.04106 0.92137
11.51477 0.51349 2.39326 0.43224 0.20935 0.87712
12.42954 -2.36879 0.86015 0.81573 -0.31257 0.48671
12.42489 -2.46221 0.80957 0.83554 -0.30675 0.45583
12.41349 -2.34407 0.89830 0.77858 -0.31895 0.54045
12.37518 -2.36640 0.93737 0.76132 -0.30569 0.57180
12.39097 -2.28951 0.95746 0.76132 -0.30569 0.57180
11.82537 -0.50738 1.78038 0.37405 -0.60283 0.70475
11.90086 -0.66075 1.62769 0.11206 -0.58305 0.80467
11.90655 -0.70106 1.59495 0.07979 -0.59121 0.80256
11.89378 -0.74908 1.56124 0.07709 -0.57703 0.81307
13.05791 -3.94943 -1.67370 -0.42609 0.11309 0.89759
13.04070 -3.92347 -1.69249 -0.60984 0.32791 0.72151
13.11900 -4.02162 -1.64661 -0.31124 -0.03538 0.94967
13.05433 -4.02461 -1.66792 -0.31124 -0.03538 0.94967
13.05483 -3.98363 -1.67024 -0.42715 0.12925 0.89490
12.20662 -1.69485 1.33599 -0.11629 -0.26256 0.95788
12.19083 -1.76698 1.31383 -0.17222 -0.25465 0.95158
12.14386 -1.75416 1.30876 -0.17222 -0.25465 0.95158
12.14955 -1.66717 1.33033 -0.20275 -0.22320 0.95345
13.08166 -4.09333 -1.66342 -0.20678 -0.14835 0.96707
13.03525 -4.08343 -1.67546 -0.31199 -0.02055 0.94986
10.71865 4.45016 -2.89351 -0.11507 -0.15895 0.98056
10.61751 4.37978 -2.90978 -0.04547 -0.10955 0.99294
10.64807 4.44018 -2.90171 -0.04547 -0.10955 0.99294
12.96877 -3.09869 -2.54594 -0.71151 -0.26179 0.65210
13.24323 -4.61156 -2.40911 0.39344 -0.91663 0.07072
13.24153 -4.61684 -2.46799 0.39344 -0.91663 0.07072
13.19180 -4.63082 -2.37715 0.39214 -0.91652 0.07889
13.08992 -4.17857 -1.67836 -0.12473 -0.26028 0.95744
13.09289 -4.22243 -1.69089 -0.08819 -0.31836 0.94386
13.09781 -4.31093 -1.72518 -0.01948 -0.42611 0.90446
13.06987 -4.28225 -1.71536 -0.06762 -0.38138 0.92194
11.85460 -0.64374 1.65168 0.19897 -0.64813 0.73508
13.20220 -4.39545 -1.78183 0.17656 -0.65915 0.73099
13.18722 -4.37771 -1.76498 0.13636 -0.61911 0.77337
12.70782 -2.88986 -0.40680 0.79286 -0.57067 0.21378
10.97616 2.58285 0.86687 0.59791 0.61191 0.51776
10.79051 4.06763 -2.91367 -0.15121 -0.01468 0.98839
10.77014 4.16406 -2.91535 -0.15121 -0.01468 0.98839
10.75033 4.02340 -2.91659 -0.08612 0.01249 0.99621
10.72845 4.07881 -2.91917 -0.08612 0.01249 0.99621
10.71455 4.18234 -2.91959 -0.07813 -0.00647 0.99692
11.88723 -0.28203 1.93693 0.46160 -0.51464 0.72254
11.37356 0.89847 2.23196 0.20589 0.60066 0.77254
11.36397 0.98218 2.16943 0.20589 0.60066 0.77254
11.32190 0.91844 2.23020 0.20589 0.60066 0.77254
12.58230 -2.74939 0.21741 0.83046 -0.45238 0.32511
11.37814 0.81431 2.29445 0.16365 0.59384 0.78777
11.32425 0.85043 2.27842 0.16365 0.59384 0.78777
12.79311 -3.05479 -1.63328 0.82133 -0.57042 -0.00689
12.32031 -2.16056 1.09074 0.54943 -0.44517 0.70707
12.34180 -2.21314 1.04672 0.62949 -0.40474 0.66327
12.29390 -2.20553 1.08785 0.56723 -0.37988 0.73071
12.27899 -2.06074 1.16927 0.37456 -0.51457 0.77132
12.29693 -2.11002 1.13254 0.45891 -0.48608 0.74373
12.23691 -2.09653 1.16688 0.35555 -0.47186 0.80680
12.26854 -2.15362 1.12649 0.50155 -0.34534 0.79321
13.19931 -4.55041 -2.03495 0.32778 -0.89316 0.30795
13.27783 -4.60841 -2.58084 0.39017 -0.91876 0.06033
12.43469 -2.56035 0.72436 0.84922 -0.30390 0.43183
11.43529 0.65354 2.38315 0.32075 0.39328 0.86166
11.46444 0.62637 2.38392 0.29043 0.33695 0.89561
11.42860 0.61729 2.39896 0.29043 0.33695 0.89561
11.34546 1.06249 2.11024 0.28652 0.61481 0.73479
11.31082 1.00394 2.16872 0.24015 0.61119 0.75417
11.92976 -0.95003 1.43843 -0.02635 -0.44557 0.89486
13.07081 -4.36785 -1.75619 -0.02999 -0.46722 0.88363
10.84019 3.36071 -0.06721 0.51525 0.76194 0.39239
11.29830 1.14361 2.06118 0.28667 0.60870 0.73980
11.24185 1.19419 2.04143 0.28667 0.60870 0.73980
11.93940 -1.00904 1.41135 -0.03609 -0.36721 0.92944
11.64189 0.02560 2.28612 0.57583 -0.27613 0.76953
11.65217 -0.04805 2.25200 0.57583 -0.27613 0.76953
12.52519 -2.83307 0.24122 0.82239 -0.47013 0.32041
12.55218 -2.84768 0.14867 0.82153 -0.47549 0.31465
11.46564 0.58753 2.39601 0.38539 0.25951 0.88551
11.47051 0.54259 2.40557 0.38452 0.20428 0.90023
11.47898 0.49356 2.41152 0.38661 0.14055 0.91147
11.43157 0.52642 2.42145 0.31192 0.16741 0.93524
11.42740 0.57438 2.41204 0.29131 0.27155 0.91728
10.92733 3.72663 -1.21148 0.62036 0.78184 0.06229
10.87331 3.75930 -1.14223 0.56985 0.80136 0.18190
10.81894 3.80495 -1.20585 0.58657 0.80621 0.07715
11.02951 3.64993 -1.33318 0.60829 0.79349 0.01885
10.87137 3.77051 -1.30549 0.60829 0.79349 0.01885
11.15708 2.11085 1.22638 0.47778 0.67000 0.56817
11.10398 2.12167 1.26075 0.50042 0.65442 0.56685
13.31625 -4.62491 -2.83529 0.43240 -0.88480 0.17367
13.32827 -4.63432 -2.90476 0.44089 -0.87308 0.20821
13.35725 -4.63244 -2.95561 0.44430 -0.86387 0.23734
10.76771 3.58271 -0.48562 0.54389 0.78080 0.30746
10.76301 3.65165 -0.65237 0.54389 0.78080 0.30746
11.28961 1.08506 2.11129 0.25885 0.60558 0.75251
13.18898 -4.42978 -1.81399 0.21174 -0.74672 0.63053
13.20280 -4.44895 -1.84347 0.25422 -0.78289 0.56786
13.14621 -4.42893 -1.80416 0.08494 -0.64738 0.75742
12.38823 -2.63607 0.75691 0.83210 -0.31390 0.45726
10.84196 3.76792 -1.09588 0.50797 0.80359 0.31018
10.79342 3.81349 -1.14617 0.55329 0.82449 0.11870
11.04108 2.32179 1.09682 0.57459 0.61611 0.53875
11.09184 2.27204 1.10185 0.55178 0.63593 0.53957
11.14602 1.93250 1.42618 0.45146 0.64067 0.62107
11.13183 2.01447 1.35315 0.47510 0.64390 0.59973
11.10372 1.94464 1.44677 0.50317 0.61349 0.60865
11.08053 2.02035 1.38963 0.50317 0.61349 0.60865
13.25580 -4.62401 -2.64449 0.40248 -0.91155 0.08414
13.37243 -4.70667 -3.21433 0.43949 -0.85423 0.27775
13.33574 -4.68702 -3.09804 0.43977 -0.85242 0.28281
13.22150 -4.46547 -1.87720 0.28577 -0.80838 0.51465
13.24280 -4.47962 -1.91417 0.31646 -0.82556 0.46723
13.39901 -4.81847 -3.89661 0.33592 -0.93875 0.07690
10.80087 3.74785 -0.97520 0.53523 0.78467 0.31275
10.74315 3.80499 -1.02570 0.51862 0.79715 0.30917
10.77988 3.74144 -0.91877 0.53399 0.79465 0.28877
12.51587 -2.72683 0.40064 0.83701 -0.40544 0.36746
12.47682 -2.73232 0.48353 0.83701 -0.40544 0.36746
11.10021 1.88730 1.50964 0.48566 0.63218 0.60373
11.55467 0.06208 2.35003 0.47636 -0.24331 0.84492
11.58859 0.02350 2.31980 0.47636 -0.24331 0.84492
11.59262 0.07963 2.33368 0.47636 -0.24331 0.84492
11.51890 0.10223 2.37732 0.41997 -0.22375 0.87952
11.55763 0.11641 2.36244 0.41997 -0.22375 0.87952
12.47605 -2.68657 0.53317 0.84514 -0.35892 0.39613
10.90006 2.85763 0.62234 0.57236 0.63392 0.52014
10.74404 3.85784 -1.26023 0.56929 0.82199 0.01539
10.63504 3.92706 -1.29582 0.53680 0.84370 -0.00321
10.77520 3.83758 -1.37532 0.53680 0.84370 -0.00321
11.69466 -0.14405 2.17353 0.55774 -0.39226 0.73147
13.23950 -4.64576 -2.74315 0.42694 -0.89270 0.14428
11.14298 1.74723 1.60721 0.45330 0.57210 0.68353
11.15850 1.67740 1.65537 0.45330 0.57210 0.68353
13.22722 -4.56458 -2.10661 0.36559 -0.89862 0.24252
13.19469 -4.56755 -2.07793 0.33054 -0.88827 0.31894
13.37555 -4.77918 -3.51377 0.39122 -0.90401 0.17235
12.06759 -1.23008 1.35186 -0.10781 -0.11538 0.98745
11.62887 0.10336 2.31531 0.59987 -0.17439 0.78086
11.85753 -1.00312 1.41427 0.00224 -0.41674 0.90902
12.68619 -3.00746 -0.68621 0.78875 -0.59752 0.14435
10.68961 3.77255 -0.82903 0.56085 0.77315 0.29612
12.52466 -2.78527 0.30844 0.82347 -0.45162 0.34342
12.48541 -2.78313 0.40320 0.82211 -0.44848 0.35070
11.55018 0.22633 2.38462 0.49819 -0.10230 0.86101
11.55658 0.17137 2.37375 0.50613 -0.14277 0.85056
11.51741 0.20590 2.39805 0.44186 -0.12429 0.88843
11.52061 0.15404 2.38813 0.42673 -0.14450 0.89276
12.63643 -3.01604 -0.48960 0.78448 -0.58859 0.19532
11.49095 0.44201 2.41315 0.39569 0.07734 0.91512
11.50584 0.38904 2.41046 0.41370 0.02171 0.91016
11.45420 0.42079 2.42710 0.33165 0.04540 0.94231
11.47168 0.36579 2.42343 0.35774 0.00195 0.93382
13.35798 -4.79924 -3.59276 0.36162 -0.92287 0.13249
10.86719 3.23734 0.12660 0.49771 0.75190 0.43235
10.80127 3.26646 0.15185 0.49771 0.75190 0.43235
11.18049 1.63951 1.67515 0.42388 0.60025 0.67825
11.11722 1.62024 1.73176 0.42388 0.60025 0.67825
11.15923 1.54301 1.77573 0.37187 0.63114 0.68072
11.17695 1.49198 1.81294 0.35190 0.64275 0.68047
11.13311 1.57845 1.75928 0.42038 0.60520 0.67603
12.31353 -2.25798 1.05041 0.59033 -0.31095 0.74487
12.35557 -2.26982 1.00616 0.65746 -0.32629 0.67918
12.31210 -2.33138 1.02209 0.65652 -0.28254 0.69940
10.80735 4.00111 -2.90969 -0.14840 0.02156 0.98869
11.62091 -0.01328 2.28701 0.55823 -0.28334 0.77981
11.10641 2.21897 1.14868 0.51746 0.64057 0.56737
11.02699 2.22832 1.21551 0.53949 0.63556 0.55228
11.05159 2.11133 1.31949 0.52506 0.62440 0.57830
12.08999 -1.35673 1.34374 -0.22586 -0.03614 0.97349
12.11531 -1.48014 1.34503 -0.22586 -0.03614 0.97349
12.06551 -1.31790 1.34081 -0.17867 -0.08283 0.98042
12.04014 -1.36189 1.33172 -0.22699 -0.06972 0.97140
13.49280 -4.79066 -4.01366 0.35290 -0.93459 0.04470
12.49006 -2.95673 0.13805 0.81722 -0.50208 0.28296
13.30222 -4.73708 -3.20274 0.41939 -0.87160 0.25382
12.75010 -3.11310 -1.63334 0.79831 -0.60224 0.00144
12.72246 -3.14964 -1.59095 0.79831 -0.60224 0.00144
11.64659 -0.10056 2.23147 0.54435 -0.35496 0.76006
11.65754 -0.16514 2.18681 0.51046 -0.42892 0.74529
12.30408 -1.98589 1.20578 0.30009 -0.51125 0.80534
13.04320 -4.16532 -1.68373 -0.20465 -0.16299 0.96517
10.90004 2.95987 0.49358 0.55775 0.65411 0.51094
13.37216 -4.83274 -3.99981 0.33356 -0.94168 0.04445
13.34053 -4.83938 -3.91406 0.32395 -0.94494 0.04632
10.73352 3.54753 -0.34309 0.52323 0.78964 0.32047
10.63356 4.69985 -2.85212 -0.21031 -0.16691 0.96328
11.64572 -0.23814 2.14246 0.49443 -0.53154 0.68776
11.60457 -0.30077 2.12127 0.48556 -0.55983 0.67143
11.72680 -0.37734 1.96385 0.45302 -0.60744 0.65252
11.66484 -0.41452 1.97618 0.48361 -0.59230 0.64444
12.98015 -3.65801 -1.98572 -0.83978 0.40936 0.35665
12.93449 -3.75443 -1.97010 -0.81278 0.43390 0.38875
12.93749 -3.67373 -2.07554 -0.83570 0.44735 0.31856
10.78623 3.35980 0.00271 0.50114 0.76903 0.39680
12.98901 -3.94558 -1.72440 -0.59506 0.34004 0.72820
13.02023 -3.96837 -1.69223 -0.52368 0.24349 0.81638
12.97203 -3.99954 -1.71566 -0.56785 0.30277 0.76542
13.01206 -4.01315 -1.68782 -0.41264 0.05634 0.90915
11.74917 -0.41692 1.90941 0.42491 -0.61507 0.66419
11.77796 -0.43765 1.86968 0.40858 -0.62628 0.66396
13.18574 -4.52057 -1.95626 0.30147 -0.86681 0.39717
13.16856 -4.54422 -1.99505 0.30258 -0.87860 0.36947
10.76943 3.43464 -0.13162 0.50379 0.78886 0.35199
11.58268 -0.03023 2.30350 0.48724 -0.30211 0.81935
11.61497 -0.06684 2.26862 0.51861 -0.32858 0.78935
11.57533 -0.08172 2.28445 0.46013 -0.36515 0.80929
11.60789 -0.11779 2.24705 0.49612 -0.43542 0.75118
12.26210 -1.93843 1.24638 0.18869 -0.51980 0.83319
12.26548 -1.90598 1.26376 0.06779 -0.47636 0.87663
12.23377 -1.91446 1.26160 0.06779 -0.47636 0.87663
12.26351 -1.97475 1.22508 0.24135 -0.52945 0.81329
12.26900 -2.01526 1.19964 0.30253 -0.52727 0.79402
12.22735 -1.99382 1.22134 0.17938 -0.50549 0.84398
12.22809 -1.95255 1.24284 0.09473 -0.45131 0.88732
11.81988 -0.79209 1.54776 0.18337 -0.53798 0.82277
11.88643 -0.80137 1.52685 0.18337 -0.53798 0.82277
11.85705 -0.74771 1.56849 0.18337 -0.53798 0.82277
11.76527 -0.55570 1.77302 0.39054 -0.59301 0.70414
11.71479 -0.48177 1.87259 0.45576 -0.60972 0.64848
11.74549 -0.50114 1.83320 0.43577 -0.60551 0.66592
11.50762 0.25804 2.40753 0.39204 -0.02069 0.91972
11.17431 1.79240 1.54511 0.44705 0.60096 0.66257
11.08751 1.77447 1.62492 0.49212 0.58090 0.64836
10.71179 3.29709 0.19675 0.48467 0.74567 0.45724
10.78101 3.21786 0.25257 0.48467 0.74567 0.45724
12.20388 -1.81715 1.29971 -0.05564 -0.31764 0.94658
12.21998 -1.86090 1.28498 -0.01333 -0.35538 0.93463
11.80250 -0.57773 1.73241 0.39890 -0.60156 0.69210
12.72194 -3.13041 -1.35681 0.77611 -0.61927 0.11904
12.75498 -3.08928 -1.35831 0.77611 -0.61927 0.11904
12.72643 -3.11305 -1.29581 0.77611 -0.61927 0.11904
12.42878 -2.66607 0.65612 0.85329 -0.33899 0.39621
12.85521 -3.20742 -2.67695 -0.39878 -0.49547 0.77167
12.83631 -3.28679 -2.73768 -0.39878 -0.49547 0.77167
12.89619 -3.22078 -2.66435 -0.39878 -0.49547 0.77167
12.87205 -3.14322 -2.61024 -0.09368 -0.70541 0.70258
12.91446 -3.14981 -2.61121 -0.09368 -0.70541 0.70258
11.80871 -0.63539 1.67401 0.23760 -0.64254 0.72849
11.81745 -0.72635 1.59411 0.18965 -0.58993 0.78486
11.84773 -0.69050 1.61374 0.18965 -0.58993 0.78486
12.61021 -2.93668 -0.19259 0.79450 -0.55777 0.24014
12.59498 -2.99256 -0.27300 0.79317 -0.56015 0.23901
11.80897 -0.67601 1.63647 0.22824 -0.65998 0.71577
13.55161 -4.76982 -4.05256 0.35461 -0.93434 0.03563
11.21335 1.43115 1.84986 0.32309 0.63688 0.70000
11.18135 1.37212 1.91888 0.32833 0.63727 0.69720
11.91603 -0.89643 1.46680 0.03910 -0.50046 0.86488
11.87260 -0.87551 1.48247 0.06860 -0.50302 0.86155
11.82782 -0.85853 1.50062 0.17774 -0.55519 0.81251
11.44067 0.47478 2.42654 0.30921 0.08734 0.94698
12.92391 -3.39703 -2.61039 -0.89675 0.21977 0.38410
12.88743 -3.46141 -2.65118 -0.88315 0.24838 0.39793
12.90311 -3.38369 -2.66490 -0.88315 0.24838 0.39793
12.94362 -3.39630 -2.54666 -0.91500 0.29086 0.27961
12.92582 -3.47537 -2.49272 -0.91263 0.34977 0.21158
12.90648 -3.47372 -2.57885 -0.91263 0.34977 0.21158
12.59933 -3.15040 -0.81748 0.78388 -0.60621 0.13429
12.65030 -3.10810 -0.92403 0.78388 -0.60621 0.13429
12.71769 -3.10884 -1.23743 0.77322 -0.60975 0.17419
12.54996 -2.98101 -0.09535 0.80438 -0.53733 0.25348
12.13128 -1.59495 1.33815 -0.20675 -0.12872 0.96989
12.07597 -1.50766 1.33235 -0.25286 -0.08279 0.96396
12.07737 -1.60417 1.32158 -0.28369 -0.11041 0.95254
11.98150 -1.54135 1.30031 -0.28369 -0.11041 0.95254
12.72976 -3.13342 -1.45208 0.79550 -0.60326 0.05705
11.47695 0.24010 2.41805 0.37336 -0.09759 0.92254
11.44067 0.26873 2.43174 0.31382 -0.05563 0.94785
11.37425 0.06884 2.41194 0.20673 -0.20459 0.95677
11.43394 0.11452 2.40881 0.20673 -0.20459 0.95677
11.39318 0.15956 2.42725 0.20673 -0.20459 0.95677
11.33696 0.11380 2.42878 0.15053 -0.15209 0.97684
11.34919 0.20302 2.44079 0.15053 -0.15209 0.97684
10.83102 2.86954 0.68158 0.55581 0.65108 0.51689
12.69031 -3.18088 -1.44520 0.77224 -0.62984 0.08336
12.69629 -3.18127 -1.54273 0.78678 -0.61682 0.02244
12.88424 -3.29402 -2.69908 -0.78723 -0.04677 0.61488
13.36760 -4.76004 -3.40473 0.40892 -0.88631 0.21732
13.30803 -4.75410 -3.27257 0.40038 -0.88945 0.22041
13.26455 -4.77417 -3.27919 0.38251 -0.89911 0.21280
11.38779 0.60867 2.41148 0.22743 0.27820 0.93321
11.38558 0.56180 2.42501 0.23256 0.20655 0.95040
11.34301 0.59879 2.42158 0.15563 0.26730 0.95096
11.04426 1.96418 1.47895 0.52275 0.60976 0.59576
12.04044 -1.27773 1.34034 -0.16506 -0.09154 0.98203
11.99352 -1.32691 1.32392 -0.21882 -0.07473 0.97290
11.99096 -1.28474 1.32992 -0.18333 -0.14940 0.97163
12.01279 -1.23532 1.34324 -0.13191 -0.21246 0.96823
11.69988 -0.43128 1.93207 0.49027 -0.61099 0.62155
13.15209 -4.65803 -2.48012 0.41034 -0.90968 0.06404
12.76541 -3.08745 -1.71278 0.80841 -0.58722 -0.04044
12.80900 -3.02383 -1.76870 0.80842 -0.58738 -0.03813
12.77554 -3.06426 -1.81355 0.79941 -0.59805 -0.05730
10.86741 2.66029 0.89852 0.57310 0.63291 0.52055
10.85172 2.75871 0.79613 0.57310 0.63291 0.52055
12.72785 -3.12573 -1.79122 0.77656 -0.62656 -0.06616
12.62043 -2.99710 -0.37449 0.78748 -0.57451 0.22319
12.31831 -2.38424 0.99478 0.72508 -0.26306 0.63644
12.31957 -2.43659 0.97172 0.72508 -0.26306 0.63644
12.36081 -2.32774 0.97308 0.69381 -0.26455 0.66981
12.25638 -2.40898 1.04861 0.69072 -0.26622 0.67234
12.26259 -2.50462 1.00947 0.71606 -0.23486 0.65734
12.26121 -2.45758 1.02779 0.71606 -0.23486 0.65734
12.21653 -2.14863 1.15464 0.41725 -0.35938 0.83472
12.24545 -2.19845 1.12218 0.51027 -0.33898 0.79039
12.19728 -2.19316 1.14953 0.44814 -0.29076 0.84536
11.38987 0.51066 2.43410 0.23973 0.13705 0.96112
11.39984 0.45621 2.43844 0.24864 0.07236 0.96589
11.34542 0.49466 2.44358 0.16960 0.10924 0.97944
10.91873 2.37943 1.16202 0.57642 0.61549 0.53751
10.95250 2.44657 1.05068 0.58737 0.61474 0.52639
10.81991 2.59355 1.03088 0.59267 0.60614 0.53042
11.41518 0.39894 2.43823 0.26408 0.01951 0.96430
11.43800 0.34140 2.43357 0.29102 -0.00398 0.95671
11.37092 0.37195 2.44696 0.19472 -0.00219 0.98086
12.39139 -2.44295 0.87514 0.79331 -0.30125 0.52906
12.34416 -2.45641 0.93282 0.77073 -0.30350 0.56024
12.39273 -2.50964 0.83335 0.80141 -0.30588 0.51398
12.34646 -2.55188 0.88036 0.80141 -0.30588 0.51398
12.32895 -2.62801 0.86203 0.80164 -0.30781 0.51246
12.33625 -2.51052 0.91693 0.77379 -0.27991 0.56825
10.94552 2.30775 1.21173 0.57764 0.59983 0.55365
11.85411 -0.95363 1.43960 0.07508 -0.49335 0.86659
13.27436 -4.70429 -3.05182 0.44453 -0.85368 0.27135
13.21324 -4.71651 -2.98584 0.44691 -0.85738 0.25529
13.22937 -4.67770 -2.86831 0.45361 -0.86933 0.19622
12.00400 -1.38680 1.32018 -0.23815 -0.10207 0.96585
11.93483 -1.39493 1.30181 -0.24394 -0.10299 0.96431
11.48170 0.19243 2.41011 0.36747 -0.15286 0.91739
11.47896 0.11874 2.39664 0.35743 -0.20204 0.91182
11.44168 0.20834 2.42477 0.27318 -0.18289 0.94442
12.43103 -2.79658 0.51998 0.84557 -0.40568 0.34703
12.44174 -2.86245 0.40588 0.83348 -0.44792 0.32353
12.42668 -2.83812 0.47837 0.83348 -0.44792 0.32353
12.42955 -2.75963 0.56561 0.84496 -0.40199 0.35276
11.03321 2.03408 1.41826 0.55881 0.59956 0.57294
10.99445 2.08884 1.39876 0.55881 0.59956 0.57294
13.17587 -4.59576 -2.14938 0.35077 -0.90547 0.23893
13.16093 -4.61725 -2.21369 0.34916 -0.91015 0.22297
10.89409 3.75491 -2.05275 0.46467 0.88271 -0.07001
10.77837 3.80943 -2.13338 0.46467 0.88271 -0.07001
10.71799 3.85520 -1.95715 0.46467 0.88271 -0.07001
10.78713 3.82373 -1.84861 0.51524 0.85684 -0.01887
10.57972 3.94659 -1.74860 0.48785 0.87099 -0.05823
11.27200 0.86390 2.27673 0.12273 0.57680 0.80761
11.27252 0.91180 2.24448 0.09545 0.55532 0.82614
11.22313 0.87705 2.27354 0.09545 0.55532 0.82614
11.26664 0.97848 2.19885 0.19532 0.58913 0.78408
11.22099 0.96930 2.21383 0.16757 0.52684 0.83329
11.20191 0.92989 2.24259 0.16757 0.52684 0.83329
10.68051 4.57331 -2.87149 -0.19777 -0.25840 0.94558
13.13058 -4.65468 -2.35786 0.39129 -0.91342 0.11203
12.35917 -2.63537 0.80805 0.80892 -0.31574 0.49593
11.05512 1.73545 1.68134 0.51144 0.54101 0.66764
11.10808 1.69049 1.67721 0.51144 0.54101 0.66764
12.64411 -3.17781 -1.17596 0.76075 -0.62862 0.16154
12.64471 -3.14845 -1.06453 0.76075 -0.62862 0.16154
12.68441 -3.08080 -0.98849 0.76076 -0.62849 0.16199
13.32718 -4.83534 -3.79677 0.32254 -0.94098 0.10262
13.29268 -4.83509 -3.68606 0.32254 -0.94098 0.10262
10.41616 3.98165 -2.13000 0.39284 0.90956 -0.13555
10.49333 3.92805 -2.26604 0.39284 0.90956 -0.13555
10.31740 3.99850 -2.30318 0.39284 0.90956 -0.13555
10.47054 3.96477 -2.07658 0.40550 0.90527 -0.12668
10.65582 3.91583 -1.41793 0.54436 0.83878 -0.01111
10.55412 4.96182 -2.83152 -0.22737 -0.16234 0.96018
10.50693 4.95738 -2.84151 -0.19224 -0.14116 0.97114
10.51799 4.84250 -2.85268 -0.17537 -0.12017 0.97714
13.31459 -4.71837 -3.16160 0.42931 -0.85848 0.28053
13.24296 -4.73207 -3.09393 0.42929 -0.85849 0.28054
12.95194 -3.46148 -2.39474 -0.89486 0.40813 0.18072
12.89332 -3.57983 -2.41773 -0.89486 0.40813 0.18072
12.92173 -3.57552 -2.29762 -0.88788 0.41112 0.20653
12.83878 -3.72111 -2.31326 -0.86207 0.47104 0.18698
11.54145 -0.04254 2.31917 0.42433 -0.36690 0.82784
11.50563 -0.00040 2.35102 0.37652 -0.33318 0.86442
11.54895 0.00904 2.33579 0.37652 -0.33318 0.86442
11.51354 0.05069 2.36513 0.37394 -0.30025 0.87750
11.17844 1.24490 2.02700 0.30346 0.60599 0.73532
11.98041 -1.18963 1.35038 -0.09658 -0.28501 0.95365
11.91512 -1.20663 1.33969 -0.08227 -0.28464 0.95510
10.43640 5.02433 -2.84384 -0.16982 -0.17888 0.96911
10.46345 5.06827 -2.83099 -0.16982 -0.17888 0.96911
10.73500 3.85892 -1.18945 0.55324 0.82453 0.11867
10.72698 3.85354 -1.14019 0.51662 0.82047 0.24483
10.68162 3.88835 -1.17025 0.52318 0.83381 0.17620
11.96001 -1.24634 1.33307 -0.14570 -0.19698 0.96952
12.23057 -2.03962 1.19676 0.30506 -0.41583 0.85675
12.48446 -3.03227 0.00932 0.81883 -0.51057 0.26238
12.46488 -3.01243 0.10901 0.81883 -0.51057 0.26238
12.86338 -3.54721 -2.62089 -0.88829 0.35278 0.29409
12.87762 -3.56639 -2.52870 -0.89599 0.39199 0.20866
12.82681 -3.64313 -2.57786 -0.87256 0.43361 0.22499
12.83226 -3.67740 -2.46444 -0.86940 0.45987 0.18073
10.64891 4.53206 -2.88543 -0.14275 -0.21685 0.96571
13.18380 -4.50168 -1.91929 0.27133 -0.83633 0.47638
12.54041 -3.02492 -0.16484 0.79691 -0.55626 0.23560
12.87668 -3.79125 -2.05511 -0.80869 0.47802 0.34281
12.88678 -3.85630 -1.93989 -0.77252 0.48377 0.41132
12.80504 -3.92602 -2.00920 -0.76389 0.53103 0.36672
10.70390 3.84440 -1.06714 0.50923 0.81074 0.28876
11.67858 -0.51383 1.87184 0.51360 -0.58823 0.62466
11.63895 -0.48215 1.93426 0.51360 -0.58823 0.62466
11.63128 -0.53438 1.89461 0.54405 -0.55653 0.62791
11.11231 1.46487 1.87393 0.37873 0.62752 0.68028
10.63614 4.64321 -2.86325 -0.19382 -0.19778 0.96089
10.56901 4.68580 -2.86609 -0.16379 -0.19369 0.96729
10.60695 4.61197 -2.87445 -0.16379 -0.19369 0.96729
12.58240 -3.05857 -0.40043 0.79135 -0.57606 0.20475
10.66902 3.80956 -0.89122 0.55208 0.78624 0.27755
11.15422 1.30806 1.98710 0.33271 0.61233 0.71719
11.11858 1.34133 1.97640 0.35370 0.60755 0.71118
11.74395 -0.60555 1.73954 0.37896 -0.62222 0.68501
11.71400 -0.57124 1.79453 0.45838 -0.57825 0.67492
11.66411 -0.57167 1.83513 0.53217 -0.54464 0.64820
12.46046 -2.86912 0.34926 0.83223 -0.44708 0.32788
11.76609 -0.63604 1.69335 0.39436 -0.66863 0.63041
10.64648 3.78927 -0.79447 0.54702 0.77919 0.30599
12.95381 -3.92035 -1.77491 -0.66566 0.36943 0.64840
12.93211 -3.98407 -1.75603 -0.61366 0.31077 0.72584
12.89067 -3.96805 -1.81357 -0.68144 0.41146 0.60526
12.87626 -3.36753 -2.71287 -0.78446 -0.03103 0.61940
12.83594 -3.42749 -2.76102 -0.77562 0.01490 0.63103
12.84110 -3.35653 -2.75635 -0.77562 0.01490 0.63103
12.86447 -3.44405 -2.71103 -0.87782 0.24926 0.40902
11.73171 -0.78618 1.58721 0.35319 -0.55660 0.75197
11.77431 -0.77734 1.57375 0.35319 -0.55660 0.75197
11.74981 -0.72036 1.62743 0.35319 -0.55660 0.75197
13.33306 -4.81408 -3.63042 0.35307 -0.92741 0.12352
13.14982 -4.49874 -1.89709 0.25000 -0.83337 0.49294
11.73737 -0.85005 1.53546 0.35283 -0.56994 0.74208
11.78209 -0.84992 1.51857 0.26254 -0.56593 0.78153
11.97437 -1.47388 1.30495 -0.28176 -0.07142 0.95682
12.27339 -2.31987 1.06146 0.63963 -0.28743 0.71292
12.23180 -2.31099 1.09703 0.59525 -0.25878 0.76073
12.26903 -2.24882 1.08905 0.59525 -0.25878 0.76073
10.62138 3.74351 -0.63586 0.54243 0.78043 0.31096
12.14084 -1.85824 1.27825 -0.12700 -0.29911 0.94573
12.09667 -1.86127 1.27059 -0.14600 -0.27435 0.95048
12.16596 -1.90288 1.26516 -0.07669 -0.34339 0.93606
12.19804 -1.92053 1.25920 0.00603 -0.39876 0.91704
12.85272 -3.05527 -2.41069 0.57939 -0.74660 0.32695
12.79629 -3.08512 -2.34150 0.65183 -0.72627 0.21829
12.87718 -3.00527 -2.31739 0.65183 -0.72627 0.21829
12.79757 -3.36281 -2.79873 -0.66021 -0.23622 0.71297
12.80272 -3.41728 -2.80276 -0.78050 0.01566 0.62496
12.77101 -3.41638 -2.83245 -0.68051 -0.11773 0.72322
12.77160 -3.32901 -2.79531 -0.16772 -0.50107 0.84900
12.71236 -3.37789 -2.83587 -0.16772 -0.50107 0.84900
12.74914 -3.39282 -2.83741 -0.16772 -0.50107 0.84900
12.96503 -4.04875 -1.70730 -0.50767 0.21392 0.83458
12.98804 -4.07597 -1.69286 -0.40609 0.08218 0.91013
12.89426 -4.06269 -1.74952 -0.59694 0.34721 0.72326
12.84706 -4.05669 -1.79354 -0.65588 0.45823 0.59987
13.12843 -4.47952 -1.86058 0.18453 -0.78210 0.59520
12.05860 -1.71262 1.29708 -0.26277 -0.16911 0.94992
12.09005 -1.75987 1.29522 -0.21565 -0.22174 0.95096
11.96890 -1.65090 1.28173 -0.27622 -0.16604 0.94664
11.97648 -1.73654 1.26939 -0.27293 -0.16081 0.94850
13.27601 -4.80034 -3.41875 0.37160 -0.90942 0.18675
13.26358 -4.81653 -3.48245 0.35331 -0.92083 0.16504
13.01859 -4.22179 -1.70247 -0.17760 -0.23938 0.95455
12.93819 -4.25885 -1.72984 -0.21371 -0.23622 0.94791
12.97383 -4.20256 -1.70777 -0.21371 -0.23622 0.94791
12.98455 -4.16683 -1.69821 -0.23090 -0.18635 0.95497
13.14618 -4.36594 -1.75403 -0.01251 -0.49233 0.87032
11.51019 -0.09782 2.30791 0.39603 -0.39313 0.82983
11.49667 -0.05134 2.33437 0.36183 -0.34646 0.86547
12.38331 -2.77389 0.65634 0.84871 -0.37407 0.37384
11.81284 -0.93500 1.45585 0.11348 -0.49851 0.85943
11.77074 -0.92370 1.47281 0.21818 -0.53842 0.81394
12.95623 -4.15555 -1.70585 -0.34776 -0.01403 0.93748
11.19491 0.83256 2.30199 0.07856 0.50119 0.86177
11.27145 0.81344 2.30980 0.11342 0.54370 0.83158
11.21076 0.76207 2.34254 0.03804 0.50469 0.86246
10.65062 3.56972 -0.27030 0.50809 0.79270 0.33686
11.78179 -0.69273 1.63264 0.35676 -0.55476 0.75164
10.66656 3.88660 -1.12987 0.50878 0.82345 0.25113
10.62901 3.86747 -0.99107 0.50878 0.82345 0.25113
10.66827 3.83229 -0.95851 0.53047 0.80563 0.26377
11.61441 -0.43942 1.99558 0.52440 -0.56823 0.63412
11.63010 -0.37834 2.03733 0.52440 -0.56823 0.63412
11.57259 -0.43319 2.03767 0.51935 -0.54054 0.66188
11.57706 -0.36076 2.09331 0.51935 -0.54054 0.66188
10.61300 3.65577 -0.41119 0.51252 0.78690 0.34368
11.57694 -0.17423 2.23137 0.44120 -0.50805 0.73975
11.52823 -0.25549 2.20461 0.44120 -0.50805 0.73975
11.60999 -0.20810 2.18840 0.44120 -0.50805 0.73975
11.55783 -0.29278 2.15916 0.46469 -0.53092 0.70865
11.56627 -0.13163 2.26282 0.44059 -0.42315 0.79172
10.58858 3.25373 0.39217 0.46887 0.75247 0.46255
10.62826 3.32220 0.24057 0.46887 0.75247 0.46255
13.22828 -4.86300 -3.75625 0.30479 -0.94746 0.09710
11.86299 -1.07302 1.38438 0.00435 -0.39281 0.91961
11.80327 -0.99288 1.42569 0.12846 -0.47502 0.87055
11.79131 -1.04654 1.40205 0.10995 -0.42112 0.90032
11.82558 -1.05990 1.39219 0.10113 -0.40947 0.90670
11.76130 -0.67705 1.65497 0.28739 -0.64906 0.70436
11.74199 -0.66775 1.67559 0.40999 -0.66259 0.62680
11.72780 -0.65341 1.70004 0.40999 -0.66259 0.62680
13.13123 -4.57894 -2.04886 0.29552 -0.88298 0.36471
10.55715 4.73685 -2.85981 -0.18651 -0.13479 0.97316
12.41565 -2.98215 0.29413 0.82518 -0.47573 0.30455
12.40546 -2.93006 0.40310 0.82518 -0.47573 0.30455
12.19091 -1.96298 1.24020 0.06682 -0.46190 0.88441
12.38828 -2.90107 0.49523 0.83519 -0.46052 0.30064
10.76512 3.00054 0.58433 0.53179 0.68226 0.50172
12.65340 -3.19507 -1.28521 0.74750 -0.64509 0.15843
12.68735 -3.16967 -1.34748 0.74825 -0.64765 0.14375
10.67415 3.47281 -0.08569 0.48640 0.78403 0.38562
10.64461 3.41259 0.06859 0.47964 0.77633 0.40897
10.61227 3.47105 -0.00446 0.47964 0.77633 0.40897
13.45198 -4.80618 -4.04578 0.33253 -0.94252 0.03296
11.34077 0.54841 2.43508 0.14035 0.25037 0.95792
12.28658 -2.53707 0.96896 0.76171 -0.28250 0.58308
12.47815 -2.93815 0.20148 0.81633 -0.48400 0.31519
12.47610 -2.89429 0.27414 0.81633 -0.48400 0.31519
10.73136 3.33928 0.10350 0.49032 0.75724 0.43149
13.18873 -4.65014 -2.58709 0.41843 -0.90498 0.07701
12.52902 -3.09058 -0.28970 0.78811 -0.57752 0.21295
12.38677 -2.68837 0.72097 0.83762 -0.32517 0.43892
11.24686 1.06223 2.14181 0.22591 0.60154 0.76623
11.20667 1.03322 2.17249 0.15426 0.56075 0.81349
11.39704 0.64998 2.39421 0.22927 0.35321 0.90702
11.86689 -1.17594 1.34772 0.00063 -0.33556 0.94202
10.78157 2.55365 1.11894 0.59097 0.59892 0.54042
13.12147 -4.41282 -1.78721 0.09286 -0.65077 0.75357
13.08044 -4.44049 -1.80916 0.06310 -0.67604 0.73416
13.09438 -4.46936 -1.84048 0.07336 -0.71684 0.69336
12.17634 -2.23551 1.14904 0.47308 -0.19149 0.85996
12.15342 -2.27744 1.15231 0.47308 -0.19149 0.85996
12.20013 -2.28334 1.12531 0.47308 -0.19149 0.85996
12.22319 -2.24145 1.12190 0.46383 -0.23914 0.85304
10.60670 3.14507 0.54681 0.49691 0.72679 0.47418
13.23347 -4.79393 -3.31048 0.37162 -0.90590 0.20309
10.85435 3.86345 -2.87503 0.10320 0.57635 0.81066
10.75232 3.90383 -2.89075 0.10320 0.57635 0.81066
10.76567 3.84644 -2.85164 0.10320 0.57635 0.81066
13.11854 -4.53795 -1.95050 0.25869 -0.84468 0.46861
13.07364 -4.54913 -1.94705 0.24512 -0.82884 0.50293
13.09162 -4.52074 -1.90901 0.24512 -0.82884 0.50293
13.17303 -4.68777 -2.78139 0.45074 -0.87483 0.17748
13.48613 -4.79394 -4.04788 0.33861 -0.94061 0.02432
13.26907 -4.85934 -3.86802 0.30874 -0.94873 0.06781
13.07312 -4.40634 -1.78106 0.01343 -0.63361 0.77353
11.91319 -1.26842 1.32138 -0.10657 -0.27946 0.95422
11.93736 -1.31667 1.31346 -0.16784 -0.21423 0.96226
11.89929 -1.32525 1.30581 -0.14214 -0.22913 0.96296
10.95738 2.20006 1.31612 0.56506 0.60507 0.56089
12.18111 -2.10252 1.18348 0.30148 -0.32828 0.89518
12.16757 -2.14708 1.17451 0.35633 -0.25717 0.89827
12.13482 -2.10476 1.19515 0.24775 -0.26305 0.93243
11.35553 0.43751 2.44730 0.17251 0.03536 0.98437
12.18727 -2.05491 1.19956 0.30143 -0.33995 0.89083
12.14223 -2.06162 1.20585 0.24753 -0.27311 0.92959
12.14648 -2.01644 1.22075 0.17788 -0.32339 0.92940
11.04945 1.90886 1.53213 0.52277 0.61579 0.58950
10.99786 1.93940 1.54975 0.55341 0.60365 0.57388
12.15112 -1.97064 1.23809 0.02310 -0.37523 0.92665
12.18816 -2.00760 1.22001 0.11555 -0.41528 0.90233
11.03873 1.85280 1.59639 0.51713 0.55830 0.64875
11.08474 1.84987 1.55963 0.51358 0.61978 0.59339
13.14460 -4.59633 -2.11181 0.30476 -0.89947 0.31317
12.52796 -3.06213 -0.21233 0.79142 -0.57013 0.22047
11.06778 1.58267 1.79985 0.46790 0.58496 0.66248
11.07614 1.65402 1.73094 0.46790 0.58496 0.66248
11.35319 0.64490 2.40351 0.13641 0.33525 0.93220
10.60443 3.08373 0.64039 0.52196 0.69613 0.49290
11.19509 1.17932 2.07020 0.27292 0.59856 0.75316
11.22700 1.12500 2.10040 0.25584 0.60636 0.75291
11.16357 1.14685 2.10450 0.24946 0.57832 0.77673
11.18451 1.09759 2.13279 0.20393 0.56382 0.80033
11.49926 -0.14798 2.28677 0.39676 -0.47869 0.78322
10.55631 3.74010 -0.52154 0.51716 0.78720 0.33596
12.27306 -2.75726 0.87104 0.81720 -0.33496 0.46902
12.26578 -2.71218 0.90824 0.79314 -0.30629 0.52641
12.28729 -2.60067 0.93855 0.78223 -0.29302 0.54978
13.08930 -4.66750 -2.32498 0.38442 -0.91450 0.12610
13.06696 -4.66851 -2.27597 0.37756 -0.91323 0.15317
11.46835 0.04441 2.37948 0.32622 -0.29824 0.89701
11.29938 0.72231 2.36747 0.02480 0.48190 0.87588
11.27129 0.67508 2.39425 0.02480 0.48190 0.87588
11.32386 0.68271 2.38857 0.02480 0.48190 0.87588
10.63017 3.04070 0.67314 0.53304 0.68105 0.50203
10.76089 2.81355 0.82704 0.56426 0.64196 0.51914
10.76345 2.69786 0.96936 0.57981 0.62996 0.51669
13.19694 -4.65491 -2.66582 0.43402 -0.89538 0.09959
13.17050 -4.67374 -2.70105 0.44409 -0.88502 0.13972
11.41315 0.31110 2.43960 0.20659 0.02509 0.97811
11.08550 1.51068 1.85040 0.42563 0.59797 0.67917
12.84544 -3.52548 -2.69543 -0.87879 0.35778 0.31578
12.81630 -3.61268 -2.66799 -0.86234 0.44066 0.24939
12.79934 -3.58459 -2.73892 -0.84548 0.39545 0.35887
12.82218 -3.50375 -2.75505 -0.82412 0.19035 0.53347
10.59573 3.19103 0.48639 0.48760 0.73528 0.47076
11.24091 0.71507 2.37167 0.00141 0.49261 0.87025
13.08322 -4.68375 -2.42756 0.39185 -0.91287 0.11451
13.13178 -4.67170 -2.52536 0.42764 -0.90040 0.07999
13.09152 -4.69607 -2.56820 0.44022 -0.89294 0.09420
13.04549 -4.72912 -2.63401 0.45731 -0.88083 0.12251
10.93946 2.09291 1.45034 0.56847 0.60427 0.55829
10.90732 2.18322 1.38764 0.59070 0.59137 0.54896
10.86177 2.10670 1.51908 0.59070 0.59137 0.54896
12.00351 -1.80440 1.26396 -0.24128 -0.19796 0.95005
12.05861 -1.84216 1.26855 -0.17330 -0.24314 0.95438
12.01010 -1.85260 1.25600 -0.20816 -0.18723 0.96001
12.61159 -3.16348 -0.95708 0.76652 -0.62472 0.14893
11.90724 -1.74411 1.24938 -0.25531 -0.17772 0.95038
10.41724 4.02160 -1.82493 0.44120 0.89181 -0.10009
